-4.578110 1.879886 -1.899807 0.000000 0.000000 0.000000
-1.423843 3.683830 -6.691794 0.000000 0.000000 0.000000
1.666014 -1.117264 -8.087765 0.000000 0.000000 0.000000
-1.893765 1.446233 -5.161521 0.000000 0.000000 0.000000
-1.314102 3.240073 -6.737654 0.000000 0.000000 0.000000
-0.538028 -0.865859 -5.150375 0.000000 0.000000 0.000000
3.086613 3.206034 -1.508614 0.000000 0.000000 0.000000
2.282713 3.289921 -6.052218 0.000000 0.000000 0.000000
-2.297353 0.121665 -2.854627 0.000000 0.000000 0.000000
-3.191226 0.580380 -2.105342 0.000000 0.000000 0.000000
0.684092 2.992546 -0.441147 0.000000 0.000000 0.000000
0.248118 0.427433 -0.645076 0.000000 0.000000 0.000000
4.071433 2.648881 -5.236879 0.000000 0.000000 0.000000
0.576707 1.755296 -0.687435 0.000000 0.000000 0.000000
5.096812 2.703385 -6.188802 0.000000 0.000000 0.000000
0.992960 2.000444 -0.425406 0.000000 0.000000 0.000000
-0.693020 2.698869 -6.332272 0.000000 0.000000 0.000000
1.429874 -0.097164 -6.333413 0.000000 0.000000 0.000000
4.252025 2.708359 -4.431172 0.000000 0.000000 0.000000
0.336979 -0.424458 -9.113265 0.000000 0.000000 0.000000
0.728539 1.950156 -5.616158 0.000000 0.000000 0.000000
0.511363 0.641763 -8.091243 0.000000 0.000000 0.000000
-2.923391 1.837851 -1.641829 0.000000 0.000000 0.000000
-0.607802 1.886576 -3.497511 0.000000 0.000000 0.000000
0.704161 2.001195 -1.777340 0.000000 0.000000 0.000000
-3.343197 -0.311306 -0.157943 0.000000 0.000000 0.000000
0.651468 2.812510 -2.154885 0.000000 0.000000 0.000000
-0.662306 -0.772433 1.139207 0.000000 0.000000 0.000000
-3.216616 -1.313662 -2.729684 0.000000 0.000000 0.000000
-0.302609 0.713902 -8.521864 0.000000 0.000000 0.000000
3.922836 -0.367325 -2.955690 0.000000 0.000000 0.000000
0.490323 -0.098189 1.302427 0.000000 0.000000 0.000000
3.716935 3.255528 -6.669277 0.000000 0.000000 0.000000
5.478532 3.080295 -4.814187 0.000000 0.000000 0.000000
2.194206 2.334336 -5.978835 0.000000 0.000000 0.000000
-2.266476 2.605338 -2.059694 0.000000 0.000000 0.000000
-4.184872 -1.325925 -1.834438 0.000000 0.000000 0.000000
2.940233 1.675211 -0.192690 0.000000 0.000000 0.000000
-2.651863 0.426133 0.010667 0.000000 0.000000 0.000000
0.073790 1.792167 -2.865286 0.000000 0.000000 0.000000
2.017264 -0.809298 -2.581600 0.000000 0.000000 0.000000
3.233823 1.031376 -4.304806 0.000000 0.000000 0.000000
2.874729 2.172282 -4.426607 0.000000 0.000000 0.000000
-1.645516 -0.355184 -1.387337 0.000000 0.000000 0.000000
0.111766 -1.275088 -7.784073 0.000000 0.000000 0.000000
0.049820 3.679765 -2.119460 0.000000 0.000000 0.000000
-0.149393 3.375310 -2.793898 0.000000 0.000000 0.000000
1.033354 0.235147 -2.680740 0.000000 0.000000 0.000000
-0.540554 3.395439 -2.560372 0.000000 0.000000 0.000000
1.194382 2.585214 -2.788173 0.000000 0.000000 0.000000
5.303525 0.538797 -5.757815 0.000000 0.000000 0.000000
-2.337692 1.050730 -2.358785 0.000000 0.000000 0.000000
2.391020 3.308567 -7.587630 0.000000 0.000000 0.000000
-4.510195 -0.301876 -0.549532 0.000000 0.000000 0.000000
-3.097916 -0.050521 -2.382925 0.000000 0.000000 0.000000
2.420121 0.889731 0.366655 0.000000 0.000000 0.000000
0.613920 -1.501395 -6.402444 0.000000 0.000000 0.000000
3.977934 -0.124288 -7.380508 0.000000 0.000000 0.000000
4.529776 -0.302236 -4.462148 0.000000 0.000000 0.000000
4.151486 2.134031 -4.945529 0.000000 0.000000 0.000000
3.715494 -1.230801 -3.922994 0.000000 0.000000 0.000000
1.492461 2.309104 2.440904 0.000000 0.000000 0.000000
0.015995 3.045945 -5.419290 0.000000 0.000000 0.000000
2.073728 -0.144796 -4.659560 0.000000 0.000000 0.000000
2.712583 0.655760 -3.650674 0.000000 0.000000 0.000000
1.021349 -0.580245 -6.849429 0.000000 0.000000 0.000000
-0.493875 -0.321481 -5.436886 0.000000 0.000000 0.000000
-0.467575 0.533060 -4.669430 0.000000 0.000000 0.000000
-1.160689 -0.931210 -1.969447 0.000000 0.000000 0.000000
4.342899 1.940299 -6.190353 0.000000 0.000000 0.000000
-1.059462 1.231681 -5.022597 0.000000 0.000000 0.000000
1.837094 1.334037 -2.467697 0.000000 0.000000 0.000000
1.890477 1.620151 -4.601907 0.000000 0.000000 0.000000
0.972031 3.172441 -4.759957 0.000000 0.000000 0.000000
-3.534414 2.322495 -3.080850 0.000000 0.000000 0.000000
-0.175050 3.085234 -1.633297 0.000000 0.000000 0.000000
-1.824227 2.005588 -2.976021 0.000000 0.000000 0.000000
-1.930643 1.802842 -2.844736 0.000000 0.000000 0.000000
4.990435 0.777567 -5.731074 0.000000 0.000000 0.000000
1.408023 0.439707 -3.646200 0.000000 0.000000 0.000000
-0.611874 3.646514 1.887694 0.000000 0.000000 0.000000
-3.457864 1.745615 0.184776 0.000000 0.000000 0.000000
1.979428 -0.172653 -8.216494 0.000000 0.000000 0.000000
-0.526187 0.857016 -5.780544 0.000000 0.000000 0.000000
-0.808639 3.726689 -1.742275 0.000000 0.000000 0.000000
2.697159 3.864775 -3.446480 0.000000 0.000000 0.000000
-1.258285 0.190806 1.659197 0.000000 0.000000 0.000000
0.297660 -0.057663 1.106461 0.000000 0.000000 0.000000
-1.797866 1.210977 -3.957576 0.000000 0.000000 0.000000
1.205021 2.582871 1.167203 0.000000 0.000000 0.000000
-3.182430 -1.175186 -1.375911 0.000000 0.000000 0.000000
-0.058027 1.095310 0.419547 0.000000 0.000000 0.000000
1.585166 0.475914 -1.151413 0.000000 0.000000 0.000000
2.528806 -0.373854 -0.705269 0.000000 0.000000 0.000000
-0.170254 2.447448 1.213077 0.000000 0.000000 0.000000
2.625168 1.180802 -0.591610 0.000000 0.000000 0.000000
-4.440902 0.052910 -1.803274 0.000000 0.000000 0.000000
-2.230593 2.706437 -4.707033 0.000000 0.000000 0.000000
0.157474 2.508108 -4.690420 0.000000 0.000000 0.000000
-3.025424 2.228641 -4.412661 0.000000 0.000000 0.000000
1.742607 2.748155 -7.933443 0.000000 0.000000 0.000000
-0.934079 -1.736313 -1.029085 0.000000 0.000000 0.000000
-2.201271 3.241356 -1.582723 0.000000 0.000000 0.000000
-1.865402 0.762033 -6.670871 0.000000 0.000000 0.000000
-0.625125 1.071891 -1.894070 0.000000 0.000000 0.000000
1.372800 1.307969 1.924608 0.000000 0.000000 0.000000
4.726023 2.084793 -3.254751 0.000000 0.000000 0.000000
4.125015 0.880564 -3.835354 0.000000 0.000000 0.000000
0.763449 3.654448 -1.217178 0.000000 0.000000 0.000000
0.934782 0.856956 -6.819075 0.000000 0.000000 0.000000
4.376970 0.265812 -5.678976 0.000000 0.000000 0.000000
1.505107 0.692014 -8.555173 0.000000 0.000000 0.000000
0.069987 0.378214 -3.306068 0.000000 0.000000 0.000000
5.471117 0.919407 -3.904977 0.000000 0.000000 0.000000
1.583988 0.337266 0.915147 0.000000 0.000000 0.000000
3.289390 3.252360 -3.607376 0.000000 0.000000 0.000000
2.696568 0.522197 -3.009805 0.000000 0.000000 0.000000
1.031157 2.823911 -6.585806 0.000000 0.000000 0.000000
-0.799923 -0.224012 -2.926071 0.000000 0.000000 0.000000
-2.280173 -0.467764 0.869572 0.000000 0.000000 0.000000
-4.060476 0.687949 -2.210488 0.000000 0.000000 0.000000
1.125725 1.718088 -8.128524 0.000000 0.000000 0.000000
1.211472 1.521622 -6.474886 0.000000 0.000000 0.000000
-0.365414 2.829606 -8.408083 0.000000 0.000000 0.000000
2.168919 1.247788 -4.068088 0.000000 0.000000 0.000000
-0.652791 2.290091 -0.856112 0.000000 0.000000 0.000000
1.175089 0.211246 -2.758132 0.000000 0.000000 0.000000
4.363639 0.350517 -6.110585 0.000000 0.000000 0.000000
0.238041 1.766617 -2.689798 0.000000 0.000000 0.000000
3.492844 3.188193 -7.139004 0.000000 0.000000 0.000000
3.591892 2.036423 -4.801877 0.000000 0.000000 0.000000
-2.454623 1.197953 0.849833 0.000000 0.000000 0.000000
3.861045 2.511570 -2.631655 0.000000 0.000000 0.000000
-4.088797 0.739218 -0.488143 0.000000 0.000000 0.000000
-4.314180 2.055741 -1.367276 0.000000 0.000000 0.000000
5.072263 0.815373 -6.701431 0.000000 0.000000 0.000000
2.908567 2.492149 -7.319662 0.000000 0.000000 0.000000
5.511143 0.291758 -4.905959 0.000000 0.000000 0.000000
-2.136044 2.210026 -5.146993 0.000000 0.000000 0.000000
3.344157 1.715928 -2.131831 0.000000 0.000000 0.000000
-0.153817 2.027623 -7.740053 0.000000 0.000000 0.000000
1.307084 2.982304 -0.813126 0.000000 0.000000 0.000000
3.729118 1.261589 -1.656673 0.000000 0.000000 0.000000
-2.224704 0.673112 -3.614820 0.000000 0.000000 0.000000
4.081621 -0.693838 -3.044778 0.000000 0.000000 0.000000
-0.139864 -0.105874 -7.619728 0.000000 0.000000 0.000000
2.923692 3.087248 -1.879471 0.000000 0.000000 0.000000
2.436259 3.198783 -4.951948 0.000000 0.000000 0.000000
2.056962 -0.537655 -0.104616 0.000000 0.000000 0.000000
-1.559054 -0.377259 -0.647048 0.000000 0.000000 0.000000
3.528330 -1.377329 -6.471095 0.000000 0.000000 0.000000
-1.266086 2.388608 -0.413699 0.000000 0.000000 0.000000
3.564414 2.609612 -1.701864 0.000000 0.000000 0.000000
-0.313356 0.982988 -3.041579 0.000000 0.000000 0.000000
1.429782 0.423515 -7.371859 0.000000 0.000000 0.000000
-0.002603 -1.651450 -2.881345 0.000000 0.000000 0.000000
-1.312014 2.300552 -0.450326 0.000000 0.000000 0.000000
1.305662 1.949052 -3.083285 0.000000 0.000000 0.000000
-3.085030 0.930510 -0.726437 0.000000 0.000000 0.000000
-2.977614 2.608078 -0.214870 0.000000 0.000000 0.000000
3.328569 0.137522 -1.418703 0.000000 0.000000 0.000000
3.676781 2.256083 -6.603316 0.000000 0.000000 0.000000
0.997257 2.077133 -4.844070 0.000000 0.000000 0.000000
-2.617769 1.132493 -3.097127 0.000000 0.000000 0.000000
4.475955 0.276109 -3.411891 0.000000 0.000000 0.000000
-1.370114 2.907005 0.142594 0.000000 0.000000 0.000000
0.890934 0.220670 1.895763 0.000000 0.000000 0.000000
-0.058247 1.611803 -7.594503 0.000000 0.000000 0.000000
0.316459 -0.123787 -0.343062 0.000000 0.000000 0.000000
-0.474393 1.245047 -4.087600 0.000000 0.000000 0.000000
