2.464135 -1.702587 3.768585 255.000000 255.000000 255.000000 
-0.834078 -0.879460 4.512173 255.000000 255.000000 255.000000 
1.121589 0.826878 4.914058 255.000000 255.000000 255.000000 
3.374589 0.288692 4.800592 255.000000 255.000000 255.000000 
-0.760248 -0.002439 0.194687 255.000000 255.000000 255.000000 
0.634880 -1.488079 1.592837 255.000000 255.000000 255.000000 
0.315564 -1.476753 1.716556 255.000000 255.000000 255.000000 
1.586808 0.417438 1.970051 255.000000 255.000000 255.000000 
-0.761127 -0.074795 0.390360 255.000000 255.000000 255.000000 
-0.792565 -0.413486 0.684901 255.000000 255.000000 255.000000 
1.788755 0.429198 2.061242 255.000000 255.000000 255.000000 
0.943917 -1.403603 2.667325 255.000000 255.000000 255.000000 
-0.772383 0.190514 -0.443875 255.000000 255.000000 255.000000 
-0.672069 -0.682112 1.802921 255.000000 255.000000 255.000000 
-0.363065 -1.467885 1.286935 255.000000 255.000000 255.000000 
4.691914 -0.756304 4.112701 255.000000 255.000000 255.000000 
-0.796314 -0.413853 0.866790 255.000000 255.000000 255.000000 
-0.219342 0.179250 -1.036361 255.000000 255.000000 255.000000 
3.601206 -1.679628 3.682473 255.000000 255.000000 255.000000 
4.456008 0.477589 2.197395 255.000000 255.000000 255.000000 
1.651939 -1.683463 3.245894 255.000000 255.000000 255.000000 
4.273787 -1.586505 0.250652 255.000000 255.000000 255.000000 
-0.602832 0.143072 -0.948628 255.000000 255.000000 255.000000 
-0.717817 -0.671374 1.782997 255.000000 255.000000 255.000000 
-0.412090 0.719656 0.521758 255.000000 255.000000 255.000000 
0.846736 -1.615992 1.820410 255.000000 255.000000 255.000000 
2.631608 -1.710232 3.407124 255.000000 255.000000 255.000000 
0.616059 -1.548217 0.965188 255.000000 255.000000 255.000000 
-0.014567 0.864209 0.849275 255.000000 255.000000 255.000000 
-0.266404 0.935464 0.943541 255.000000 255.000000 255.000000 
-0.744015 -0.845689 1.308113 255.000000 255.000000 255.000000 
-0.796944 0.588931 1.007032 255.000000 255.000000 255.000000 
-0.444732 -0.502373 3.035072 255.000000 255.000000 255.000000 
-0.796594 0.100963 0.588782 255.000000 255.000000 255.000000 
4.672560 -0.508109 2.343434 255.000000 255.000000 255.000000 
3.174340 -1.605952 0.289575 255.000000 255.000000 255.000000 
-0.762339 0.806305 0.559984 255.000000 255.000000 255.000000 
-0.727601 0.834136 0.482494 255.000000 255.000000 255.000000 
0.134936 -1.688324 4.804658 255.000000 255.000000 255.000000 
4.668412 -0.604835 2.789076 255.000000 255.000000 255.000000 
0.046826 -1.464563 1.688319 255.000000 255.000000 255.000000 
4.699791 -0.531482 3.162572 255.000000 255.000000 255.000000 
1.491645 -1.626380 3.823453 255.000000 255.000000 255.000000 
4.122066 0.441584 1.862592 255.000000 255.000000 255.000000 
0.993969 -1.583432 0.689808 255.000000 255.000000 255.000000 
3.223251 0.138319 4.685718 255.000000 255.000000 255.000000 
0.905570 0.043419 -0.799709 255.000000 255.000000 255.000000 
0.991110 -1.576272 0.553959 255.000000 255.000000 255.000000 
2.237120 -1.773201 4.829072 255.000000 255.000000 255.000000 
-0.634292 -0.910411 -1.023134 255.000000 255.000000 255.000000 
0.823489 -1.659541 0.727651 255.000000 255.000000 255.000000 
1.480884 -1.542544 0.590960 255.000000 255.000000 255.000000 
0.742000 -1.691345 1.163331 255.000000 255.000000 255.000000 
1.882821 0.367347 2.640119 255.000000 255.000000 255.000000 
0.795193 0.195021 -0.574153 255.000000 255.000000 255.000000 
0.403516 -0.574990 -1.011131 255.000000 255.000000 255.000000 
-0.721254 -0.428095 -0.208015 255.000000 255.000000 255.000000 
1.000998 -1.760354 3.063415 255.000000 255.000000 255.000000 
1.076895 -0.030861 -0.992424 255.000000 255.000000 255.000000 
0.332516 -0.024533 -0.967814 255.000000 255.000000 255.000000 
2.647205 0.825970 4.945670 255.000000 255.000000 255.000000 
0.905758 -1.598807 1.305369 255.000000 255.000000 255.000000 
-0.608369 0.601544 -0.948570 255.000000 255.000000 255.000000 
1.823774 -1.601146 1.171157 255.000000 255.000000 255.000000 
-0.375797 0.838255 1.813578 255.000000 255.000000 255.000000 
4.349107 0.516527 4.346620 255.000000 255.000000 255.000000 
2.104645 -1.680376 0.507892 255.000000 255.000000 255.000000 
1.928626 -0.370147 -0.242126 255.000000 255.000000 255.000000 
4.252852 -0.033926 0.133533 255.000000 255.000000 255.000000 
0.737504 -1.700414 1.218814 255.000000 255.000000 255.000000 
0.863985 -0.472587 -0.305646 255.000000 255.000000 255.000000 
-0.213617 -1.840248 2.147843 255.000000 255.000000 255.000000 
4.695976 -0.755322 4.181233 255.000000 255.000000 255.000000 
0.946242 -1.645748 1.436792 255.000000 255.000000 255.000000 
4.573967 -1.696079 3.387073 255.000000 255.000000 255.000000 
2.705446 0.826029 3.052557 255.000000 255.000000 255.000000 
2.813286 -1.869606 4.834419 255.000000 255.000000 255.000000 
3.346154 0.714566 4.151361 255.000000 255.000000 255.000000 
0.733741 -1.656673 2.298315 255.000000 255.000000 255.000000 
0.334793 0.914254 0.566153 255.000000 255.000000 255.000000 
0.294614 0.840018 0.648855 255.000000 255.000000 255.000000 
-0.786325 -0.412393 0.860920 255.000000 255.000000 255.000000 
4.150576 -0.068550 0.383158 255.000000 255.000000 255.000000 
2.892780 0.265483 4.565035 255.000000 255.000000 255.000000 
0.939738 0.852963 0.437600 255.000000 255.000000 255.000000 
-0.067996 -0.073708 4.917184 255.000000 255.000000 255.000000 
0.807136 0.830534 3.842242 255.000000 255.000000 255.000000 
1.028439 -1.623742 0.697693 255.000000 255.000000 255.000000 
4.080645 -1.630405 1.902227 255.000000 255.000000 255.000000 
0.457098 -0.316795 -0.808095 255.000000 255.000000 255.000000 
2.387800 -1.587215 2.954881 255.000000 255.000000 255.000000 
-0.618320 -0.105343 -0.960986 255.000000 255.000000 255.000000 
0.775764 -1.596380 1.499018 255.000000 255.000000 255.000000 
0.570116 0.130753 -1.017161 255.000000 255.000000 255.000000 
0.498063 -1.533823 1.753482 255.000000 255.000000 255.000000 
0.910994 -0.679186 -1.005535 255.000000 255.000000 255.000000 
-0.599198 0.538863 3.058959 255.000000 255.000000 255.000000 
0.258820 -0.900179 -0.914937 255.000000 255.000000 255.000000 
1.386338 -1.630969 1.005612 255.000000 255.000000 255.000000 
2.038112 -1.729080 2.203600 255.000000 255.000000 255.000000 
0.987676 -1.697076 0.988091 255.000000 255.000000 255.000000 
0.940062 0.855584 0.437306 255.000000 255.000000 255.000000 
1.753709 0.077641 -0.388474 255.000000 255.000000 255.000000 
0.917704 -0.111298 -0.298442 255.000000 255.000000 255.000000 
1.340755 -1.652598 2.710686 255.000000 255.000000 255.000000 
0.070300 -0.990040 -1.032588 255.000000 255.000000 255.000000 
2.114948 0.461068 1.755330 255.000000 255.000000 255.000000 
-0.700736 -0.044521 1.820771 255.000000 255.000000 255.000000 
4.080534 0.725874 3.287317 255.000000 255.000000 255.000000 
1.509202 -1.589975 4.707314 255.000000 255.000000 255.000000 
0.448903 -1.427438 1.526783 255.000000 255.000000 255.000000 
-0.753594 -0.753930 -0.351897 255.000000 255.000000 255.000000 
0.588647 -1.541221 2.992746 255.000000 255.000000 255.000000 
1.434067 -1.657184 2.980578 255.000000 255.000000 255.000000 
-0.799101 0.039413 3.546327 255.000000 255.000000 255.000000 
-0.776915 -0.715843 -0.367636 255.000000 255.000000 255.000000 
-0.725896 -0.721500 -0.166822 255.000000 255.000000 255.000000 
2.066146 -0.748088 5.202878 255.000000 255.000000 255.000000 
2.641382 -1.563851 4.287654 255.000000 255.000000 255.000000 
-0.754263 -0.485989 -0.215545 255.000000 255.000000 255.000000 
2.150593 -0.446554 -0.278026 255.000000 255.000000 255.000000 
-0.167261 0.030950 4.878567 255.000000 255.000000 255.000000 
0.560511 0.126716 -1.003918 255.000000 255.000000 255.000000 
0.006771 -1.557324 1.783999 255.000000 255.000000 255.000000 
4.661881 -0.909332 1.397863 255.000000 255.000000 255.000000 
-0.795088 -0.802003 1.131441 255.000000 255.000000 255.000000 
1.022661 0.068686 -0.943837 255.000000 255.000000 255.000000 
-0.755588 -0.199952 -0.217706 255.000000 255.000000 255.000000 
4.253675 -1.511511 0.295632 255.000000 255.000000 255.000000 
0.330813 0.485945 -0.951087 255.000000 255.000000 255.000000 
-0.811376 -1.503125 4.703563 255.000000 255.000000 255.000000 
-0.378315 -1.462075 0.399917 255.000000 255.000000 255.000000 
4.004834 0.168693 0.640624 255.000000 255.000000 255.000000 
0.889383 -1.718781 0.894351 255.000000 255.000000 255.000000 
0.845497 -0.456529 -0.719726 255.000000 255.000000 255.000000 
-0.085453 -1.801226 2.078636 255.000000 255.000000 255.000000 
1.200403 -1.640105 1.939155 255.000000 255.000000 255.000000 
-0.769639 -0.700770 -0.363505 255.000000 255.000000 255.000000 
-0.587029 0.434235 1.955400 255.000000 255.000000 255.000000 
0.834373 -0.452784 -0.296658 255.000000 255.000000 255.000000 
1.343955 -1.666440 3.940053 255.000000 255.000000 255.000000 
-0.781230 -0.869235 0.576923 255.000000 255.000000 255.000000 
-0.763149 -0.688027 -0.359801 255.000000 255.000000 255.000000 
4.088830 -1.699571 4.437079 255.000000 255.000000 255.000000 
-0.790382 -0.720284 -0.376635 255.000000 255.000000 255.000000 
4.670869 -0.508480 1.005569 255.000000 255.000000 255.000000 
-0.466469 0.104970 -1.004578 255.000000 255.000000 255.000000 
-0.816620 -0.536049 -0.779785 255.000000 255.000000 255.000000 
4.144866 0.445181 -0.145753 255.000000 255.000000 255.000000 
1.683031 -1.582262 3.581011 255.000000 255.000000 255.000000 
1.756477 -1.719455 3.947553 255.000000 255.000000 255.000000 
1.638876 0.401986 2.579431 255.000000 255.000000 255.000000 
-0.119941 0.854728 1.777554 255.000000 255.000000 255.000000 
4.608151 -0.954665 3.754077 255.000000 255.000000 255.000000 
0.144185 0.815021 4.917869 255.000000 255.000000 255.000000 
1.684526 -1.655375 2.882954 255.000000 255.000000 255.000000 
-0.752376 -0.484141 -0.217814 255.000000 255.000000 255.000000 
0.207193 -1.670828 2.709821 255.000000 255.000000 255.000000 
0.871458 0.136555 -0.292855 255.000000 255.000000 255.000000 
4.655344 -1.030020 2.343172 255.000000 255.000000 255.000000 
1.149272 -1.548449 0.723424 255.000000 255.000000 255.000000 
-0.018647 0.881800 0.614316 255.000000 255.000000 255.000000 
4.276985 -1.568095 2.275293 255.000000 255.000000 255.000000 
-0.734265 0.842973 0.482485 255.000000 255.000000 255.000000 
2.336919 0.778872 4.878177 255.000000 255.000000 255.000000 
1.626240 -0.035307 -0.356265 255.000000 255.000000 255.000000 
1.854022 0.416383 2.090539 255.000000 255.000000 255.000000 
4.654509 -1.023862 1.811594 255.000000 255.000000 255.000000 
-0.301690 -1.246398 1.907251 255.000000 255.000000 255.000000 
0.991210 -2.014928 1.974915 255.000000 255.000000 255.000000 
4.050446 0.562928 2.652692 255.000000 255.000000 255.000000 
-0.756615 -0.200632 -0.217324 255.000000 255.000000 255.000000 
4.663184 -1.025071 2.382638 255.000000 255.000000 255.000000 
-0.799075 -0.731628 1.010218 255.000000 255.000000 255.000000 
-0.240387 -1.409774 2.189395 255.000000 255.000000 255.000000 
-0.771320 0.480280 0.372604 255.000000 255.000000 255.000000 
0.972072 -1.701718 0.358717 255.000000 255.000000 255.000000 
-0.820698 -1.438336 1.496064 255.000000 255.000000 255.000000 
0.501074 0.774058 1.097853 255.000000 255.000000 255.000000 
0.933980 -1.540308 2.218577 255.000000 255.000000 255.000000 
1.686479 -1.490216 1.458794 255.000000 255.000000 255.000000 
1.318018 -1.488628 3.826587 255.000000 255.000000 255.000000 
2.236876 0.435483 -0.825318 255.000000 255.000000 255.000000 
3.285661 0.715211 4.123135 255.000000 255.000000 255.000000 
-0.409554 0.665161 4.986946 255.000000 255.000000 255.000000 
0.633762 -1.698971 0.990391 255.000000 255.000000 255.000000 
2.820790 -1.457681 -0.936885 255.000000 255.000000 255.000000 
3.368956 -1.621264 1.582307 255.000000 255.000000 255.000000 
4.136147 0.446339 2.399150 255.000000 255.000000 255.000000 
0.569116 0.128234 -1.035026 255.000000 255.000000 255.000000 
4.028652 -0.561181 -1.015211 255.000000 255.000000 255.000000 
2.769864 0.147222 4.704764 255.000000 255.000000 255.000000 
-0.532956 -1.841195 1.183414 255.000000 255.000000 255.000000 
4.552239 -0.064717 -0.099655 255.000000 255.000000 255.000000 
-0.792811 0.165644 1.182850 255.000000 255.000000 255.000000 
0.785379 0.655630 -0.997966 255.000000 255.000000 255.000000 
-0.609807 -0.101480 -0.949425 255.000000 255.000000 255.000000 
-0.884064 -0.719766 3.090674 255.000000 255.000000 255.000000 
2.450835 -1.688204 2.884242 255.000000 255.000000 255.000000 
0.684996 -1.684054 2.065328 255.000000 255.000000 255.000000 
2.631608 -1.718904 3.407385 255.000000 255.000000 255.000000 
4.113370 0.140026 0.084445 255.000000 255.000000 255.000000 
-0.803313 -0.871635 4.514390 255.000000 255.000000 255.000000 
4.572893 -1.715876 3.430573 255.000000 255.000000 255.000000 
-0.692713 0.508429 1.814377 255.000000 255.000000 255.000000 
0.625909 0.662018 -0.479101 255.000000 255.000000 255.000000 
-0.754437 -0.835824 0.395232 255.000000 255.000000 255.000000 
1.837945 0.597139 -0.286687 255.000000 255.000000 255.000000 
-0.700916 -0.867866 1.320130 255.000000 255.000000 255.000000 
1.808905 0.412721 2.151376 255.000000 255.000000 255.000000 
-0.729891 -1.484435 4.961345 255.000000 255.000000 255.000000 
3.269549 -0.552997 -0.959802 255.000000 255.000000 255.000000 
1.918458 -1.520746 0.579192 255.000000 255.000000 255.000000 
1.172789 -1.563857 2.013680 255.000000 255.000000 255.000000 
4.674620 -0.853713 1.633728 255.000000 255.000000 255.000000 
2.787759 -1.729207 3.267425 255.000000 255.000000 255.000000 
-0.730378 -0.917061 0.481827 255.000000 255.000000 255.000000 
-0.620907 0.364264 -0.982865 255.000000 255.000000 255.000000 
-0.746604 -0.268376 0.086636 255.000000 255.000000 255.000000 
-0.782100 -0.420083 -0.368516 255.000000 255.000000 255.000000 
3.388517 -0.685652 -1.256757 255.000000 255.000000 255.000000 
4.698600 -0.547500 3.150462 255.000000 255.000000 255.000000 
0.073245 -0.927550 4.892574 255.000000 255.000000 255.000000 
-0.760120 -0.640014 0.252247 255.000000 255.000000 255.000000 
-0.776045 -0.395830 -0.384736 255.000000 255.000000 255.000000 
-0.769935 -0.412591 -0.363601 255.000000 255.000000 255.000000 
-0.614418 0.038068 -0.971177 255.000000 255.000000 255.000000 
4.712725 -0.576853 1.048692 255.000000 255.000000 255.000000 
0.856880 0.974075 1.329954 255.000000 255.000000 255.000000 
0.865494 -0.471120 -0.306910 255.000000 255.000000 255.000000 
-0.598885 -0.329826 -0.941834 255.000000 255.000000 255.000000 
-0.778702 -0.715887 -0.368764 255.000000 255.000000 255.000000 
0.996662 -1.710689 1.168551 255.000000 255.000000 255.000000 
-0.471050 0.480754 2.879321 255.000000 255.000000 255.000000 
0.994904 -1.564204 1.265699 255.000000 255.000000 255.000000 
-0.730542 0.839288 0.481497 255.000000 255.000000 255.000000 
1.472224 -1.702081 4.010380 255.000000 255.000000 255.000000 
-0.748214 -0.847031 1.301285 255.000000 255.000000 255.000000 
3.587141 -1.421941 -0.670022 255.000000 255.000000 255.000000 
2.487147 -1.281738 -0.414684 255.000000 255.000000 255.000000 
2.903571 0.235409 4.535152 255.000000 255.000000 255.000000 
2.169017 -1.716055 0.495873 255.000000 255.000000 255.000000 
-0.491410 0.531267 1.791077 255.000000 255.000000 255.000000 
-0.801116 0.589648 0.685551 255.000000 255.000000 255.000000 
-0.771545 -0.114748 -0.365260 255.000000 255.000000 255.000000 
-0.711948 0.822231 1.341013 255.000000 255.000000 255.000000 
3.676933 0.472010 4.324640 255.000000 255.000000 255.000000 
2.899141 0.240106 4.574753 255.000000 255.000000 255.000000 
2.787316 -1.702100 1.875424 255.000000 255.000000 255.000000 
3.328317 -1.636548 3.023285 255.000000 255.000000 255.000000 
1.008004 -1.594617 0.694013 255.000000 255.000000 255.000000 
1.010834 -1.600264 0.693345 255.000000 255.000000 255.000000 
0.867979 -1.772051 2.174950 255.000000 255.000000 255.000000 
4.365337 0.153607 -0.241164 255.000000 255.000000 255.000000 
-0.794281 0.842803 1.318586 255.000000 255.000000 255.000000 
4.129199 0.440753 2.088427 255.000000 255.000000 255.000000 
-0.203335 -0.416542 -0.944437 255.000000 255.000000 255.000000 
0.930785 0.290672 -0.352422 255.000000 255.000000 255.000000 
4.695403 -0.335402 3.537318 255.000000 255.000000 255.000000 
1.091557 -1.671302 0.803706 255.000000 255.000000 255.000000 
-0.764765 -0.858041 0.563735 255.000000 255.000000 255.000000 
4.630287 0.255755 3.126660 255.000000 255.000000 255.000000 
-0.019164 -1.597034 1.716897 255.000000 255.000000 255.000000 
-0.843293 0.160904 4.716631 255.000000 255.000000 255.000000 
-0.246492 -1.747341 1.807922 255.000000 255.000000 255.000000 
0.954330 -1.667519 0.354962 255.000000 255.000000 255.000000 
1.004207 -1.593058 0.693609 255.000000 255.000000 255.000000 
2.792927 -1.635372 3.687078 255.000000 255.000000 255.000000 
4.695636 -1.547101 2.630431 255.000000 255.000000 255.000000 
0.801228 -1.443257 1.430487 255.000000 255.000000 255.000000 
4.690390 -0.508174 3.177344 255.000000 255.000000 255.000000 
0.689367 0.632860 3.919711 255.000000 255.000000 255.000000 
-0.617768 -0.968377 -0.986465 255.000000 255.000000 255.000000 
2.040639 -0.402559 -0.285896 255.000000 255.000000 255.000000 
2.199817 0.838777 -0.311362 255.000000 255.000000 255.000000 
-0.671548 0.082420 3.126426 255.000000 255.000000 255.000000 
1.015651 -1.632212 0.290743 255.000000 255.000000 255.000000 
1.697713 0.528479 1.733046 255.000000 255.000000 255.000000 
1.909816 0.452041 1.992114 255.000000 255.000000 255.000000 
0.820976 -0.150747 -0.749697 255.000000 255.000000 255.000000 
1.218167 -1.437486 -0.826557 255.000000 255.000000 255.000000 
1.798188 0.427590 3.004061 255.000000 255.000000 255.000000 
-0.631204 -0.106124 -0.990311 255.000000 255.000000 255.000000 
-0.559420 0.794271 -0.957426 255.000000 255.000000 255.000000 
2.267458 0.686300 3.273749 255.000000 255.000000 255.000000 
-0.763037 -0.134716 -0.252180 255.000000 255.000000 255.000000 
4.602412 0.229014 3.155519 255.000000 255.000000 255.000000 
1.670941 -0.362732 -0.331974 255.000000 255.000000 255.000000 
4.102112 -0.438667 0.006192 255.000000 255.000000 255.000000 
2.728030 -1.700022 4.105802 255.000000 255.000000 255.000000 
1.488401 -1.696674 2.824294 255.000000 255.000000 255.000000 
-0.343251 -1.703065 1.688756 255.000000 255.000000 255.000000 
1.289629 -1.719296 1.970769 255.000000 255.000000 255.000000 
0.207715 -1.546287 0.983623 255.000000 255.000000 255.000000 
1.326561 -0.251288 4.848636 255.000000 255.000000 255.000000 
4.221331 0.434187 3.004802 255.000000 255.000000 255.000000 
3.999260 0.544711 2.690616 255.000000 255.000000 255.000000 
2.600476 -1.686441 2.728082 255.000000 255.000000 255.000000 
0.311428 -0.470116 -0.898736 255.000000 255.000000 255.000000 
-0.765677 0.814667 1.374334 255.000000 255.000000 255.000000 
-0.732911 -0.918547 0.483437 255.000000 255.000000 255.000000 
-0.772523 -0.695453 -0.366467 255.000000 255.000000 255.000000 
-0.286050 -1.210435 1.846080 255.000000 255.000000 255.000000 
2.738277 0.838416 -0.958646 255.000000 255.000000 255.000000 
2.133559 -1.686792 0.492032 255.000000 255.000000 255.000000 
0.574771 -1.627449 3.027605 255.000000 255.000000 255.000000 
0.320799 -0.927669 -0.964273 255.000000 255.000000 255.000000 
2.578670 -1.730112 3.251880 255.000000 255.000000 255.000000 
1.567444 -1.521219 4.654108 255.000000 255.000000 255.000000 
4.687410 -0.598604 1.165520 255.000000 255.000000 255.000000 
-0.805324 -1.426553 -0.764199 255.000000 255.000000 255.000000 
4.011427 0.255032 4.442989 255.000000 255.000000 255.000000 
3.415750 -1.633162 2.108265 255.000000 255.000000 255.000000 
1.619539 -1.545017 0.741938 255.000000 255.000000 255.000000 
0.179841 0.836967 0.685021 255.000000 255.000000 255.000000 
0.865133 -0.435068 -0.287577 255.000000 255.000000 255.000000 
4.178389 0.453298 2.098551 255.000000 255.000000 255.000000 
2.046169 -1.578466 1.644179 255.000000 255.000000 255.000000 
3.228851 0.845422 -0.288579 255.000000 255.000000 255.000000 
0.978068 -1.555352 0.672007 255.000000 255.000000 255.000000 
4.001744 0.295862 1.634762 255.000000 255.000000 255.000000 
-0.798915 -0.527117 0.113168 255.000000 255.000000 255.000000 
-0.739597 -0.489095 5.001377 255.000000 255.000000 255.000000 
0.848166 -0.462389 -0.302964 255.000000 255.000000 255.000000 
4.776455 0.509708 1.482655 255.000000 255.000000 255.000000 
2.033697 0.612503 3.027449 255.000000 255.000000 255.000000 
-0.781211 0.794426 4.380209 255.000000 255.000000 255.000000 
3.252805 0.254957 4.715062 255.000000 255.000000 255.000000 
2.626768 -1.720885 2.903903 255.000000 255.000000 255.000000 
-0.802532 0.163923 0.866553 255.000000 255.000000 255.000000 
-0.763678 0.814884 0.562486 255.000000 255.000000 255.000000 
-0.792099 0.096821 0.589005 255.000000 255.000000 255.000000 
1.344277 -1.329678 3.071358 255.000000 255.000000 255.000000 
-0.758139 -0.855933 0.559544 255.000000 255.000000 255.000000 
2.582533 -1.659442 3.584872 255.000000 255.000000 255.000000 
-0.676801 0.071560 1.800800 255.000000 255.000000 255.000000 
0.319327 -0.911747 -0.946990 255.000000 255.000000 255.000000 
4.319746 0.441014 1.882179 255.000000 255.000000 255.000000 
2.055408 -1.639552 1.526127 255.000000 255.000000 255.000000 
-0.788363 -0.343417 4.933967 255.000000 255.000000 255.000000 
-0.877807 0.212618 4.685699 255.000000 255.000000 255.000000 
0.347360 -0.520786 -1.005790 255.000000 255.000000 255.000000 
1.413216 -1.729498 2.772716 255.000000 255.000000 255.000000 
-0.356813 -1.440790 1.265798 255.000000 255.000000 255.000000 
-0.178449 -1.804844 4.958927 255.000000 255.000000 255.000000 
3.574511 -1.717402 0.472241 255.000000 255.000000 255.000000 
1.003579 -1.695899 2.143783 255.000000 255.000000 255.000000 
0.556642 -0.401732 -0.987144 255.000000 255.000000 255.000000 
-0.133414 -1.643415 1.197669 255.000000 255.000000 255.000000 
1.598498 0.708617 1.735654 255.000000 255.000000 255.000000 
1.265956 -1.713404 3.345164 255.000000 255.000000 255.000000 
2.638368 -1.684408 1.018693 255.000000 255.000000 255.000000 
1.280590 -1.721621 1.057258 255.000000 255.000000 255.000000 
4.670181 -0.916728 1.397333 255.000000 255.000000 255.000000 
1.243666 -1.674263 0.727140 255.000000 255.000000 255.000000 
-0.772309 -0.023666 0.393620 255.000000 255.000000 255.000000 
-0.777295 -0.869141 1.318939 255.000000 255.000000 255.000000 
-0.793655 0.011920 -0.272688 255.000000 255.000000 255.000000 
0.217999 -1.701374 3.470448 255.000000 255.000000 255.000000 
4.648546 -1.015322 1.832757 255.000000 255.000000 255.000000 
-0.769148 -0.506526 -0.731287 255.000000 255.000000 255.000000 
-0.665044 -0.690838 3.116580 255.000000 255.000000 255.000000 
2.000634 -1.730483 1.002850 255.000000 255.000000 255.000000 
0.899143 -1.691728 2.202186 255.000000 255.000000 255.000000 
-0.478843 0.646423 4.656736 255.000000 255.000000 255.000000 
0.980696 -1.698665 0.994122 255.000000 255.000000 255.000000 
-0.350115 -1.410598 1.251897 255.000000 255.000000 255.000000 
-0.575386 0.460530 1.970224 255.000000 255.000000 255.000000 
4.274744 0.622341 0.580667 255.000000 255.000000 255.000000 
4.109633 0.808825 0.296584 255.000000 255.000000 255.000000 
0.921130 -1.614484 1.302753 255.000000 255.000000 255.000000 
0.982993 -1.704237 0.995946 255.000000 255.000000 255.000000 
-0.787421 0.504028 -0.414513 255.000000 255.000000 255.000000 
-0.606481 -0.707631 -0.958553 255.000000 255.000000 255.000000 
0.557254 0.230691 -1.020800 255.000000 255.000000 255.000000 
0.853682 -0.464982 -0.731583 255.000000 255.000000 255.000000 
4.628369 -1.718535 0.261351 255.000000 255.000000 255.000000 
3.246298 0.254807 -0.300208 255.000000 255.000000 255.000000 
0.380259 -1.707645 3.468717 255.000000 255.000000 255.000000 
0.577249 -1.545390 -0.829328 255.000000 255.000000 255.000000 
0.070974 -1.753461 2.280845 255.000000 255.000000 255.000000 
4.614657 -0.994730 1.100514 255.000000 255.000000 255.000000 
-0.760242 -0.490912 -0.219882 255.000000 255.000000 255.000000 
-0.759332 -0.003203 0.193885 255.000000 255.000000 255.000000 
-0.366278 -1.463923 1.303153 255.000000 255.000000 255.000000 
-0.381272 -1.726790 1.331223 255.000000 255.000000 255.000000 
1.141777 -1.677437 1.993024 255.000000 255.000000 255.000000 
0.322307 -0.919470 -0.958756 255.000000 255.000000 255.000000 
4.038917 0.149583 0.065276 255.000000 255.000000 255.000000 
1.825660 0.433805 1.783907 255.000000 255.000000 255.000000 
4.321254 -1.645409 1.585281 255.000000 255.000000 255.000000 
3.397531 -0.993577 -0.968438 255.000000 255.000000 255.000000 
1.788348 -1.305035 1.380912 255.000000 255.000000 255.000000 
0.644059 0.084474 -1.198959 255.000000 255.000000 255.000000 
-0.210790 -0.747697 -0.984728 255.000000 255.000000 255.000000 
4.266018 0.122688 0.316276 255.000000 255.000000 255.000000 
-0.206187 -0.423416 -0.957169 255.000000 255.000000 255.000000 
-0.762817 -0.135625 -0.256122 255.000000 255.000000 255.000000 
-0.622328 -0.522254 -0.989837 255.000000 255.000000 255.000000 
0.652732 0.839511 0.903776 255.000000 255.000000 255.000000 
4.299375 0.415916 2.978439 255.000000 255.000000 255.000000 
-0.256829 -1.450634 3.103738 255.000000 255.000000 255.000000 
-0.757978 -0.760832 -0.219333 255.000000 255.000000 255.000000 
1.465286 -1.770013 3.816092 255.000000 255.000000 255.000000 
2.023102 -1.571848 1.524612 255.000000 255.000000 255.000000 
0.796286 -0.179887 -1.047229 255.000000 255.000000 255.000000 
0.218987 -1.769218 3.477175 255.000000 255.000000 255.000000 
-0.760325 -0.692171 3.709777 255.000000 255.000000 255.000000 
4.002359 0.726329 1.582101 255.000000 255.000000 255.000000 
4.693698 -1.035240 3.158385 255.000000 255.000000 255.000000 
-0.628121 -0.522499 -0.994219 255.000000 255.000000 255.000000 
-0.736843 -0.178609 1.918795 255.000000 255.000000 255.000000 
4.718500 -1.197014 4.649006 255.000000 255.000000 255.000000 
0.989492 -1.714656 1.481916 255.000000 255.000000 255.000000 
1.002213 -1.709654 2.160089 255.000000 255.000000 255.000000 
0.868646 0.134637 -0.285960 255.000000 255.000000 255.000000 
3.383432 -1.612439 1.198670 255.000000 255.000000 255.000000 
3.105454 -1.687661 3.144171 255.000000 255.000000 255.000000 
3.994846 -1.651449 2.938250 255.000000 255.000000 255.000000 
-0.799525 0.098989 0.593576 255.000000 255.000000 255.000000 
0.883448 -0.477838 -0.321358 255.000000 255.000000 255.000000 
-0.658186 -0.770528 0.824481 255.000000 255.000000 255.000000 
4.669576 -0.730573 2.720725 255.000000 255.000000 255.000000 
1.720726 0.942283 2.059500 255.000000 255.000000 255.000000 
0.660989 0.841136 0.892888 255.000000 255.000000 255.000000 
3.255878 0.242312 4.703409 255.000000 255.000000 255.000000 
0.853670 -0.413329 -0.777518 255.000000 255.000000 255.000000 
1.729877 -1.697062 2.940560 255.000000 255.000000 255.000000 
0.673114 -1.550765 3.739270 255.000000 255.000000 255.000000 
2.776547 0.146947 4.686187 255.000000 255.000000 255.000000 
-0.772186 -0.201692 -0.364659 255.000000 255.000000 255.000000 
2.215805 -1.622054 1.686732 255.000000 255.000000 255.000000 
0.982933 -1.697653 0.991119 255.000000 255.000000 255.000000 
-0.457398 0.495843 2.335133 255.000000 255.000000 255.000000 
4.071211 -1.690806 4.422890 255.000000 255.000000 255.000000 
-0.376608 -1.324372 -0.942787 255.000000 255.000000 255.000000 
3.940279 0.676244 0.651511 255.000000 255.000000 255.000000 
4.709733 -1.557515 3.217940 255.000000 255.000000 255.000000 
1.811527 -1.444357 0.559087 255.000000 255.000000 255.000000 
-0.106543 0.785561 4.915461 255.000000 255.000000 255.000000 
0.436008 -1.906429 1.687738 255.000000 255.000000 255.000000 
4.736486 -1.899003 4.914986 255.000000 255.000000 255.000000 
1.536774 -1.608328 0.613285 255.000000 255.000000 255.000000 
-0.574746 0.448345 2.373451 255.000000 255.000000 255.000000 
3.482691 -1.576773 3.842843 255.000000 255.000000 255.000000 
-0.774711 0.101675 0.633368 255.000000 255.000000 255.000000 
0.952453 -1.662393 2.173363 255.000000 255.000000 255.000000 
-0.613453 0.363062 -0.967268 255.000000 255.000000 255.000000 
3.647915 -0.688432 -0.974405 255.000000 255.000000 255.000000 
-0.609165 0.489431 3.169806 255.000000 255.000000 255.000000 
4.045406 0.066100 4.533227 255.000000 255.000000 255.000000 
0.736875 -1.690735 1.162040 255.000000 255.000000 255.000000 
1.670924 -0.053040 -0.336322 255.000000 255.000000 255.000000 
-0.208715 -0.425182 -0.966822 255.000000 255.000000 255.000000 
0.323448 -0.922766 -0.957917 255.000000 255.000000 255.000000 
0.376107 0.453988 -1.090753 255.000000 255.000000 255.000000 
2.893075 -1.759119 3.250303 255.000000 255.000000 255.000000 
-0.622427 -0.105887 -0.978474 255.000000 255.000000 255.000000 
-0.100899 -1.670486 1.698459 255.000000 255.000000 255.000000 
-0.796005 -0.413145 0.868677 255.000000 255.000000 255.000000 
1.154481 -1.319669 2.623182 255.000000 255.000000 255.000000 
1.146906 -0.034584 -1.063013 255.000000 255.000000 255.000000 
2.770951 -1.761638 3.300143 255.000000 255.000000 255.000000 
2.908172 -1.704324 3.206078 255.000000 255.000000 255.000000 
-0.387697 0.699105 4.937419 255.000000 255.000000 255.000000 
4.045907 -1.611519 2.460295 255.000000 255.000000 255.000000 
0.415297 -1.591517 1.706814 255.000000 255.000000 255.000000 
4.675078 -1.219108 2.010210 255.000000 255.000000 255.000000 
2.893979 0.237994 4.548514 255.000000 255.000000 255.000000 
-0.671393 -0.385638 -1.065177 255.000000 255.000000 255.000000 
1.619145 -1.639961 4.474813 255.000000 255.000000 255.000000 
1.987423 -0.932738 5.245039 255.000000 255.000000 255.000000 
4.683218 -0.824999 4.194648 255.000000 255.000000 255.000000 
0.723627 -1.677925 1.159283 255.000000 255.000000 255.000000 
-0.298880 0.602254 4.771137 255.000000 255.000000 255.000000 
4.673829 -0.886315 1.657067 255.000000 255.000000 255.000000 
-0.784041 -0.126724 -0.369304 255.000000 255.000000 255.000000 
-0.755819 -0.756469 -0.220535 255.000000 255.000000 255.000000 
0.827941 -0.451962 -0.293261 255.000000 255.000000 255.000000 
4.188992 0.060686 0.488158 255.000000 255.000000 255.000000 
-0.798943 -0.417115 0.863377 255.000000 255.000000 255.000000 
4.074339 0.517736 3.138465 255.000000 255.000000 255.000000 
-0.796873 -0.414805 0.863445 255.000000 255.000000 255.000000 
-0.476473 0.099882 -1.011533 255.000000 255.000000 255.000000 
-0.876829 -1.731459 0.298071 255.000000 255.000000 255.000000 
2.929835 0.660703 0.024482 255.000000 255.000000 255.000000 
-0.335761 -1.540995 1.201275 255.000000 255.000000 255.000000 
0.894411 -0.375118 -0.789225 255.000000 255.000000 255.000000 
-0.856524 -0.423427 4.059423 255.000000 255.000000 255.000000 
-0.440531 0.546784 3.261920 255.000000 255.000000 255.000000 
1.722991 -1.768665 4.829060 255.000000 255.000000 255.000000 
0.897528 -1.614289 1.486034 255.000000 255.000000 255.000000 
1.256407 -1.468092 -0.835011 255.000000 255.000000 255.000000 
1.740407 -1.549583 3.719277 255.000000 255.000000 255.000000 
-0.021538 -1.566895 1.693867 255.000000 255.000000 255.000000 
1.015139 -1.648422 0.604623 255.000000 255.000000 255.000000 
2.997007 -1.671928 1.989811 255.000000 255.000000 255.000000 
4.669298 0.640995 0.596542 255.000000 255.000000 255.000000 
2.769935 0.234351 4.697110 255.000000 255.000000 255.000000 
-0.188888 0.869550 0.823305 255.000000 255.000000 255.000000 
-0.727746 0.831488 0.481961 255.000000 255.000000 255.000000 
-0.790234 0.095825 0.594370 255.000000 255.000000 255.000000 
0.506839 -1.541516 1.632317 255.000000 255.000000 255.000000 
4.694003 -0.618103 2.776402 255.000000 255.000000 255.000000 
-0.202364 0.883944 0.403281 255.000000 255.000000 255.000000 
4.018659 -1.703602 3.556463 255.000000 255.000000 255.000000 
-0.751404 0.342444 -0.730061 255.000000 255.000000 255.000000 
3.550765 -1.691414 2.812673 255.000000 255.000000 255.000000 
0.536283 0.827822 1.167967 255.000000 255.000000 255.000000 
-0.783832 0.093220 0.588500 255.000000 255.000000 255.000000 
1.901353 0.776811 -0.298927 255.000000 255.000000 255.000000 
4.179121 0.171585 0.100237 255.000000 255.000000 255.000000 
0.717532 -1.619153 2.119941 255.000000 255.000000 255.000000 
1.045327 -1.646501 2.115611 255.000000 255.000000 255.000000 
-0.418446 0.486206 2.199873 255.000000 255.000000 255.000000 
3.623919 -1.646943 3.652510 255.000000 255.000000 255.000000 
4.712839 -1.220650 4.705166 255.000000 255.000000 255.000000 
-0.745258 0.787493 0.554044 255.000000 255.000000 255.000000 
0.380684 0.059315 -1.112471 255.000000 255.000000 255.000000 
4.636796 -0.984549 4.460193 255.000000 255.000000 255.000000 
0.740566 -1.729521 0.368727 255.000000 255.000000 255.000000 
-0.749125 -0.476864 -0.224803 255.000000 255.000000 255.000000 
3.992970 0.078172 4.614008 255.000000 255.000000 255.000000 
0.340392 0.669662 -0.981483 255.000000 255.000000 255.000000 
2.249326 -0.041820 -1.004111 255.000000 255.000000 255.000000 
0.036227 -1.491399 1.058787 255.000000 255.000000 255.000000 
0.438415 -1.666191 2.011564 255.000000 255.000000 255.000000 
0.324952 -1.518997 1.748911 255.000000 255.000000 255.000000 
0.338298 -0.515358 -0.978557 255.000000 255.000000 255.000000 
-0.345389 -1.458556 0.389317 255.000000 255.000000 255.000000 
-0.125996 -1.609767 1.172916 255.000000 255.000000 255.000000 
-0.778029 -0.442758 -0.366082 255.000000 255.000000 255.000000 
1.745003 -1.619257 2.928743 255.000000 255.000000 255.000000 
0.675021 -1.559607 1.159360 255.000000 255.000000 255.000000 
3.045480 -0.315388 -0.915035 255.000000 255.000000 255.000000 
1.471007 -1.716122 3.343547 255.000000 255.000000 255.000000 
1.718231 -1.385260 0.429799 255.000000 255.000000 255.000000 
0.037488 -1.529390 1.080226 255.000000 255.000000 255.000000 
0.126630 -1.679912 2.741737 255.000000 255.000000 255.000000 
2.307535 -1.736161 3.209952 255.000000 255.000000 255.000000 
3.207818 -1.651247 2.271991 255.000000 255.000000 255.000000 
1.466965 -1.651743 4.286401 255.000000 255.000000 255.000000 
-0.228861 -1.475580 -0.728528 255.000000 255.000000 255.000000 
1.807446 0.149606 -0.322857 255.000000 255.000000 255.000000 
1.080949 -1.729611 2.110798 255.000000 255.000000 255.000000 
-0.816784 -0.695076 -0.418368 255.000000 255.000000 255.000000 
1.147807 -1.425351 -0.984737 255.000000 255.000000 255.000000 
3.757626 0.812217 4.454922 255.000000 255.000000 255.000000 
4.683436 -1.035712 3.178603 255.000000 255.000000 255.000000 
1.421253 -1.843841 3.469207 255.000000 255.000000 255.000000 
0.952711 0.870570 0.440418 255.000000 255.000000 255.000000 
1.767218 -1.565632 1.079932 255.000000 255.000000 255.000000 
2.770806 0.233690 4.690673 255.000000 255.000000 255.000000 
1.215007 -1.637368 1.004688 255.000000 255.000000 255.000000 
1.914562 -1.396226 1.474703 255.000000 255.000000 255.000000 
-0.812827 -1.417237 1.473150 255.000000 255.000000 255.000000 
-0.572721 -0.919386 -0.938601 255.000000 255.000000 255.000000 
-0.757075 -0.197801 -0.227245 255.000000 255.000000 255.000000 
4.685166 -1.023546 3.146555 255.000000 255.000000 255.000000 
4.677431 -0.865685 2.773511 255.000000 255.000000 255.000000 
0.842272 -0.455640 -0.300835 255.000000 255.000000 255.000000 
2.623160 0.734284 4.152581 255.000000 255.000000 255.000000 
1.411832 -1.553796 3.512776 255.000000 255.000000 255.000000 
-0.755554 -0.117582 -0.227904 255.000000 255.000000 255.000000 
-0.824089 -0.411264 4.368575 255.000000 255.000000 255.000000 
4.608202 0.272985 3.112099 255.000000 255.000000 255.000000 
1.775764 0.438063 2.889016 255.000000 255.000000 255.000000 
0.829189 -0.447098 -0.289797 255.000000 255.000000 255.000000 
0.891502 -1.686602 0.695817 255.000000 255.000000 255.000000 
2.310019 0.643005 -0.286273 255.000000 255.000000 255.000000 
-0.759124 -0.758055 -0.225852 255.000000 255.000000 255.000000 
2.546644 -1.640724 4.308530 255.000000 255.000000 255.000000 
1.066135 -0.395276 4.879663 255.000000 255.000000 255.000000 
-0.475703 -1.652939 1.070819 255.000000 255.000000 255.000000 
4.547814 -1.717843 1.731052 255.000000 255.000000 255.000000 
-0.740865 -0.455695 -0.224809 255.000000 255.000000 255.000000 
2.233510 -1.621740 0.659460 255.000000 255.000000 255.000000 
1.498275 0.809839 1.688839 255.000000 255.000000 255.000000 
-0.455411 0.102814 -0.975657 255.000000 255.000000 255.000000 
2.418572 -1.442330 1.751302 255.000000 255.000000 255.000000 
2.922218 -1.617329 3.963718 255.000000 255.000000 255.000000 
-0.783320 -0.431047 -0.369719 255.000000 255.000000 255.000000 
4.236335 -1.568229 3.201293 255.000000 255.000000 255.000000 
-0.370416 0.787938 2.133953 255.000000 255.000000 255.000000 
-0.726800 0.823743 1.374399 255.000000 255.000000 255.000000 
4.256934 -0.069382 0.164569 255.000000 255.000000 255.000000 
3.897999 -1.757151 3.420292 255.000000 255.000000 255.000000 
-0.761986 -0.147759 -0.317655 255.000000 255.000000 255.000000 
1.459304 -1.647368 3.145979 255.000000 255.000000 255.000000 
0.907201 0.776102 4.828336 255.000000 255.000000 255.000000 
0.988659 -1.572058 0.552905 255.000000 255.000000 255.000000 
0.043987 -1.723819 1.209178 255.000000 255.000000 255.000000 
0.767416 -1.553980 0.540344 255.000000 255.000000 255.000000 
4.182730 -1.647094 1.266551 255.000000 255.000000 255.000000 
0.656315 -1.538341 1.069654 255.000000 255.000000 255.000000 
1.490513 -1.601982 4.703703 255.000000 255.000000 255.000000 
-0.581804 -0.934113 -0.957076 255.000000 255.000000 255.000000 
2.253534 -1.603559 4.116136 255.000000 255.000000 255.000000 
-0.456003 0.537402 1.798671 255.000000 255.000000 255.000000 
-0.622788 -0.035003 -0.989893 255.000000 255.000000 255.000000 
0.387547 -1.421427 2.761530 255.000000 255.000000 255.000000 
-0.730568 -0.907851 1.391423 255.000000 255.000000 255.000000 
1.886363 -1.652993 1.130663 255.000000 255.000000 255.000000 
0.740926 -0.174060 -0.976379 255.000000 255.000000 255.000000 
4.704671 0.317080 3.286476 255.000000 255.000000 255.000000 
0.192697 1.029572 1.117673 255.000000 255.000000 255.000000 
4.130465 0.144720 0.138823 255.000000 255.000000 255.000000 
0.318932 -1.549500 4.718760 255.000000 255.000000 255.000000 
3.809077 0.276029 4.388735 255.000000 255.000000 255.000000 
1.341907 0.080687 -0.391522 255.000000 255.000000 255.000000 
0.840914 -0.453703 -0.299920 255.000000 255.000000 255.000000 
-0.161150 -1.756805 5.029265 255.000000 255.000000 255.000000 
2.106141 -1.729372 2.221785 255.000000 255.000000 255.000000 
2.792382 -1.604109 1.672312 255.000000 255.000000 255.000000 
-0.751863 -0.513234 -0.376712 255.000000 255.000000 255.000000 
2.901889 0.246786 4.573990 255.000000 255.000000 255.000000 
-0.796061 0.162652 1.180677 255.000000 255.000000 255.000000 
4.695629 0.458981 2.009657 255.000000 255.000000 255.000000 
-0.819057 -0.211660 -0.391644 255.000000 255.000000 255.000000 
-0.607591 -0.207430 -0.946446 255.000000 255.000000 255.000000 
-0.736700 0.822518 0.488612 255.000000 255.000000 255.000000 
0.554040 -0.078608 -1.008887 255.000000 255.000000 255.000000 
-0.899461 -0.909482 1.453992 255.000000 255.000000 255.000000 
-0.689730 0.062658 1.817245 255.000000 255.000000 255.000000 
-0.776352 -0.422542 -0.364482 255.000000 255.000000 255.000000 
3.024970 -1.594157 0.620010 255.000000 255.000000 255.000000 
-0.565748 -0.911637 -0.945171 255.000000 255.000000 255.000000 
3.247626 0.261677 4.732295 255.000000 255.000000 255.000000 
4.047941 -1.584747 0.910185 255.000000 255.000000 255.000000 
0.852097 -0.392934 -0.759261 255.000000 255.000000 255.000000 
2.770121 0.163412 4.729775 255.000000 255.000000 255.000000 
3.988276 0.727852 1.604274 255.000000 255.000000 255.000000 
-0.787818 -0.724578 1.008978 255.000000 255.000000 255.000000 
-0.810822 0.106050 3.822738 255.000000 255.000000 255.000000 
-0.721341 -0.861573 1.301660 255.000000 255.000000 255.000000 
-0.392959 0.831412 1.846976 255.000000 255.000000 255.000000 
1.859247 -1.608553 1.675078 255.000000 255.000000 255.000000 
-0.449200 0.097953 -0.951952 255.000000 255.000000 255.000000 
1.812558 0.251525 -0.326145 255.000000 255.000000 255.000000 
4.135702 -0.344602 0.107800 255.000000 255.000000 255.000000 
2.449444 -1.638413 2.746338 255.000000 255.000000 255.000000 
2.695767 0.368386 -0.436730 255.000000 255.000000 255.000000 
1.018324 -1.629782 1.657908 255.000000 255.000000 255.000000 
2.564258 -1.721226 3.314213 255.000000 255.000000 255.000000 
3.402128 -1.466187 1.719245 255.000000 255.000000 255.000000 
1.148308 0.499860 -0.310913 255.000000 255.000000 255.000000 
-0.670195 0.082501 3.125577 255.000000 255.000000 255.000000 
1.664520 -1.632630 3.938531 255.000000 255.000000 255.000000 
-0.723869 -1.393171 1.499551 255.000000 255.000000 255.000000 
1.648977 -0.044850 -0.315083 255.000000 255.000000 255.000000 
0.518712 -1.580137 1.653264 255.000000 255.000000 255.000000 
-0.733966 -0.396515 -0.218289 255.000000 255.000000 255.000000 
3.223044 -0.517377 -0.938066 255.000000 255.000000 255.000000 
3.698431 -1.588560 4.674121 255.000000 255.000000 255.000000 
1.137297 0.256802 -0.357893 255.000000 255.000000 255.000000 
1.870327 -0.195245 -0.315103 255.000000 255.000000 255.000000 
2.904608 -1.710930 3.197443 255.000000 255.000000 255.000000 
3.556515 -1.535856 2.747472 255.000000 255.000000 255.000000 
2.754742 0.275498 4.708276 255.000000 255.000000 255.000000 
-0.036534 0.869947 1.900811 255.000000 255.000000 255.000000 
-0.747938 -0.196225 -0.221550 255.000000 255.000000 255.000000 
2.696558 -1.608806 3.190219 255.000000 255.000000 255.000000 
0.570351 -0.408117 -1.007819 255.000000 255.000000 255.000000 
1.726744 0.426832 2.883480 255.000000 255.000000 255.000000 
-1.095075 -1.705983 2.040652 255.000000 255.000000 255.000000 
4.617661 -1.582402 0.175747 255.000000 255.000000 255.000000 
-0.239021 -1.530465 5.009192 255.000000 255.000000 255.000000 
-0.608203 -0.032352 -0.967523 255.000000 255.000000 255.000000 
-0.783687 0.106310 0.630757 255.000000 255.000000 255.000000 
0.856988 -0.459490 -0.716739 255.000000 255.000000 255.000000 
4.349400 0.499692 4.341151 255.000000 255.000000 255.000000 
1.448221 -1.727319 3.436538 255.000000 255.000000 255.000000 
0.839030 -0.398763 -0.754707 255.000000 255.000000 255.000000 
2.921823 -1.739772 1.013703 255.000000 255.000000 255.000000 
2.987052 -1.624161 0.487803 255.000000 255.000000 255.000000 
1.931954 -1.718528 1.000361 255.000000 255.000000 255.000000 
0.839162 0.177375 -0.735658 255.000000 255.000000 255.000000 
-0.509317 0.409145 2.828204 255.000000 255.000000 255.000000 
1.929654 0.448246 2.992589 255.000000 255.000000 255.000000 
3.800192 0.948877 0.071513 255.000000 255.000000 255.000000 
3.566898 -0.372400 0.530743 255.000000 255.000000 255.000000 
1.991001 -1.089978 0.509130 255.000000 255.000000 255.000000 
0.883095 0.870798 4.451491 255.000000 255.000000 255.000000 
1.274347 -1.706475 1.792590 255.000000 255.000000 255.000000 
1.580828 0.783603 -0.287491 255.000000 255.000000 255.000000 
-0.402139 0.600133 2.071767 255.000000 255.000000 255.000000 
2.085748 -1.457410 1.639324 255.000000 255.000000 255.000000 
0.296751 -1.754587 3.040180 255.000000 255.000000 255.000000 
0.859404 0.037256 -0.753371 255.000000 255.000000 255.000000 
1.986839 -1.397981 5.183833 255.000000 255.000000 255.000000 
-0.764173 0.465654 -0.020451 255.000000 255.000000 255.000000 
3.459805 0.268887 4.365710 255.000000 255.000000 255.000000 
-0.452238 0.098166 -0.949012 255.000000 255.000000 255.000000 
-0.349231 -1.403860 1.342023 255.000000 255.000000 255.000000 
0.052684 -1.615612 2.153427 255.000000 255.000000 255.000000 
-0.740120 -0.186571 -0.223006 255.000000 255.000000 255.000000 
2.085186 0.839338 1.669822 255.000000 255.000000 255.000000 
-0.736135 -0.146108 -0.291888 255.000000 255.000000 255.000000 
1.723430 0.118260 -0.283848 255.000000 255.000000 255.000000 
-0.132376 0.003549 5.046049 255.000000 255.000000 255.000000 
-0.722211 -0.118167 -0.215910 255.000000 255.000000 255.000000 
4.200521 0.577649 0.531054 255.000000 255.000000 255.000000 
-0.460644 0.859450 3.669223 255.000000 255.000000 255.000000 
-0.639461 0.353249 -1.003699 255.000000 255.000000 255.000000 
1.216256 -1.667466 2.127591 255.000000 255.000000 255.000000 
-0.094741 0.763166 4.918734 255.000000 255.000000 255.000000 
1.729368 0.381098 2.929346 255.000000 255.000000 255.000000 
-0.694670 0.028647 3.145787 255.000000 255.000000 255.000000 
1.936665 0.820887 1.467411 255.000000 255.000000 255.000000 
4.154661 -0.038629 0.068745 255.000000 255.000000 255.000000 
0.605030 -1.473470 1.716409 255.000000 255.000000 255.000000 
0.920769 -1.693770 2.172909 255.000000 255.000000 255.000000 
0.559561 0.122679 -1.007942 255.000000 255.000000 255.000000 
1.341556 -1.856076 4.903183 255.000000 255.000000 255.000000 
-0.765084 -0.857417 1.310629 255.000000 255.000000 255.000000 
0.310051 0.877889 0.678156 255.000000 255.000000 255.000000 
1.501662 0.805023 1.693794 255.000000 255.000000 255.000000 
2.996121 -1.675620 1.737382 255.000000 255.000000 255.000000 
-0.785354 0.032080 3.320261 255.000000 255.000000 255.000000 
1.891746 0.383862 2.611295 255.000000 255.000000 255.000000 
4.535883 -0.448027 0.290677 255.000000 255.000000 255.000000 
-0.357316 0.862937 3.894570 255.000000 255.000000 255.000000 
-0.245664 -0.044720 4.979397 255.000000 255.000000 255.000000 
3.182636 0.745001 -0.385645 255.000000 255.000000 255.000000 
1.524810 0.688944 1.658147 255.000000 255.000000 255.000000 
-0.772834 0.813886 4.543954 255.000000 255.000000 255.000000 
4.664075 -1.000002 3.734242 255.000000 255.000000 255.000000 
2.416451 -1.688521 3.330072 255.000000 255.000000 255.000000 
3.140270 -1.657526 1.521788 255.000000 255.000000 255.000000 
2.144830 -0.583547 5.023667 255.000000 255.000000 255.000000 
-0.191721 0.885325 0.836617 255.000000 255.000000 255.000000 
0.344000 0.505468 -0.998762 255.000000 255.000000 255.000000 
3.365288 -1.551036 3.949967 255.000000 255.000000 255.000000 
-0.755358 -0.484606 -0.219830 255.000000 255.000000 255.000000 
3.089995 -1.643705 1.275037 255.000000 255.000000 255.000000 
1.882779 -1.610631 1.673293 255.000000 255.000000 255.000000 
0.787670 0.199676 -1.001188 255.000000 255.000000 255.000000 
-0.381741 -0.021797 -1.025386 255.000000 255.000000 255.000000 
3.255999 -1.718910 0.505648 255.000000 255.000000 255.000000 
-0.798662 -0.146031 -0.309360 255.000000 255.000000 255.000000 
2.670087 0.404418 2.759174 255.000000 255.000000 255.000000 
0.926127 0.533236 -0.301795 255.000000 255.000000 255.000000 
-0.616109 0.418067 2.760844 255.000000 255.000000 255.000000 
-0.774078 -0.127807 -0.361854 255.000000 255.000000 255.000000 
2.189099 -1.764781 0.873344 255.000000 255.000000 255.000000 
3.050299 -1.599606 2.212470 255.000000 255.000000 255.000000 
4.277969 -1.645085 1.151416 255.000000 255.000000 255.000000 
0.665687 -1.538254 1.635701 255.000000 255.000000 255.000000 
0.840471 -0.451716 -0.713181 255.000000 255.000000 255.000000 
-0.883518 -1.655293 4.786366 255.000000 255.000000 255.000000 
3.335779 0.635932 4.082705 255.000000 255.000000 255.000000 
-0.760932 -0.270394 0.390810 255.000000 255.000000 255.000000 
3.955887 0.134126 4.618156 255.000000 255.000000 255.000000 
0.843341 -0.405445 -0.754719 255.000000 255.000000 255.000000 
2.854753 -1.576017 3.074867 255.000000 255.000000 255.000000 
0.012920 -1.297393 5.083568 255.000000 255.000000 255.000000 
-0.112195 -1.564774 1.754265 255.000000 255.000000 255.000000 
4.696227 -0.655386 3.857283 255.000000 255.000000 255.000000 
-0.095954 -0.161118 0.162545 255.000000 255.000000 255.000000 
0.398455 -1.535449 2.890356 255.000000 255.000000 255.000000 
1.222545 0.624532 1.258939 255.000000 255.000000 255.000000 
2.260132 -0.502618 4.960716 255.000000 255.000000 255.000000 
0.675218 -1.541239 1.629443 255.000000 255.000000 255.000000 
-0.762635 0.579157 0.116199 255.000000 255.000000 255.000000 
-0.365458 0.520072 1.812392 255.000000 255.000000 255.000000 
1.382874 -1.721493 3.734656 255.000000 255.000000 255.000000 
-0.756732 -0.712493 -0.350806 255.000000 255.000000 255.000000 
-0.756987 -0.855549 0.557094 255.000000 255.000000 255.000000 
4.104747 0.429738 -0.090842 255.000000 255.000000 255.000000 
-0.599920 0.374486 -0.905679 255.000000 255.000000 255.000000 
